ply
format ascii 1.0
element vertex 1201
property float x
property float y
property float z
property uint8 red
property uint8 green
property uint8 blue
end_header
-15.427744 14.993965 5.257331 35 37 24
-16.899185 22.715834 6.925991 32 35 18
-17.488251 29.475208 8.236535 27 27 15
-17.338495 31.009407 8.499050 20 22 11
-15.548595 15.544876 5.376644 54 54 41
-15.933220 17.518597 5.780541 66 66 56
-16.712088 19.840130 6.340821 51 50 45
-18.495996 28.551336 8.218010 65 68 54
-16.798246 20.906771 6.552649 24 27 14
-17.949837 28.682499 8.113880 23 26 17
-16.885681 22.386530 6.789295 36 39 22
-17.505692 22.838570 6.946321 34 38 21
-19.599363 27.296616 8.126633 35 38 31
-15.407785 15.595672 5.322710 20 21 7
-15.046339 17.021721 5.494342 95 107 95
-16.860174 21.958580 6.678236 23 25 12
-15.814182 16.748520 5.548863 72 75 61
-16.779991 20.615507 6.366299 61 64 43
-19.675936 28.823940 8.237931 29 32 19
-18.244959 33.192657 8.843909 51 53 41
-18.787170 28.432981 8.021787 41 45 31
-15.461063 15.005496 5.112421 44 48 31
-15.694150 16.136438 5.363807 49 50 36
-16.136114 17.979836 5.809866 131 135 134
-16.531311 19.927000 6.169749 127 134 118
-19.513931 27.576632 7.947871 67 71 57
-17.343084 32.477104 8.432463 168 168 168
-15.920883 17.570166 5.613824 15 18 11
-19.385229 27.031879 7.793355 39 42 31
-16.674721 18.810081 5.941567 19 23 10
-16.036146 14.874320 5.185043 46 47 33
-15.753325 16.420956 5.349673 33 34 22
-15.827921 19.706940 5.947638 105 110 90
-18.857370 34.666801 9.037609 41 43 31
-15.100146 16.663218 5.278262 62 65 47
-16.187042 18.514572 5.776066 6 9 2
-16.899946 22.939850 6.684041 51 53 39
-19.358734 26.694906 7.692242 35 39 23
-19.382513 27.748713 7.804817 64 69 49
-17.959835 34.234898 8.673403 169 169 171
-16.196907 18.770792 5.765714 38 40 27
-19.722248 27.822407 7.735845 102 107 86
-15.833434 16.715960 5.346889 16 16 3
-17.466686 27.265701 7.371322 42 46 29
-15.439234 14.981580 4.948171 28 30 17
-16.049604 18.172382 5.606265 31 33 19
-16.308563 19.115396 5.774643 32 34 28
-16.805319 21.166101 6.280296 51 54 37
-15.117825 16.416323 5.118416 27 27 19
-15.973885 17.857595 5.483427 65 65 53
-16.101490 18.466438 5.592978 40 41 33
-18.926107 27.173370 7.472064 138 141 132
-18.486408 27.101580 7.417437 48 52 35
-16.237522 19.302820 5.724437 18 23 11
-17.281675 32.633263 8.104751 55 57 44
-15.622191 15.951949 5.050779 52 62 53
-16.884220 20.701185 6.030828 103 108 88
-19.882658 27.772844 7.666093 106 111 89
-19.170126 28.594751 7.694101 64 68 51
-19.518414 27.075642 7.426435 43 47 30
-16.105223 18.723124 5.565628 65 67 56
-16.268742 19.586792 5.711863 26 29 17
-17.957222 34.828449 8.420893 0 0 0
-18.852839 33.682926 8.351399 124 123 121
-15.733119 16.417524 5.095306 38 40 29
-19.136282 27.483473 7.388304 42 47 30
-17.133127 34.543087 8.274096 29 33 19
-16.270039 19.825388 5.695425 53 59 46
-17.855318 33.996941 8.232175 70 70 68
-19.132317 25.275106 6.946747 101 105 91
-18.406588 25.411659 6.908963 38 42 28
-16.021715 17.854126 5.311317 20 21 8
-17.829445 35.571804 8.422407 51 52 44
-16.906626 21.267313 5.967017 58 60 45
-17.087488 35.080482 8.260814 31 37 27
-16.363091 20.174400 5.698185 42 46 33
-18.554306 23.628359 6.541266 51 54 35
-16.977106 37.028431 8.486454 44 47 40
-15.162384 16.953144 4.933673 54 57 42
-16.061684 18.141888 5.291913 29 30 16
-16.381441 20.437214 5.683130 24 28 14
-19.373522 27.385138 7.189142 108 112 98
-16.113117 18.434490 5.289824 32 33 19
-17.116556 35.420944 8.076521 0 0 0
-16.424528 20.735456 5.669677 13 15 1
-18.671507 24.039913 6.494020 74 79 56
-19.487383 27.168421 7.106850 48 52 35
-16.128418 18.696703 5.273249 30 30 18
-19.551458 29.014795 7.336589 51 55 39
-15.892083 17.521143 5.069039 26 30 15
-19.252682 28.854088 7.278060 53 58 38
-17.331785 29.830729 7.215509 51 54 37
-17.295826 32.975166 7.605634 77 79 68
-17.378305 35.285259 8.004889 51 53 40
-2.262559 19.211056 3.451742 66 56 48
-16.389641 20.952520 5.643157 17 19 9
-2.978545 18.694073 3.461455 61 57 44
-2.556770 19.052588 3.470100 25 19 5
-1.976157 19.508402 3.454264 13 6 1
-3.301907 18.561913 3.471674 29 20 14
-16.142658 18.959745 5.258841 49 49 37
-18.853617 28.776176 7.114550 67 71 57
-16.430756 34.028027 7.634732 78 79 71
-16.129881 18.731758 5.169909 59 59 49
-17.919268 24.242380 6.295511 44 47 28
-19.429674 27.476950 6.992856 43 47 35
-16.217869 19.276260 5.253827 48 48 36
-19.316694 26.915506 6.959868 56 60 43
-17.051924 34.666416 7.724311 0 0 0
-3.972970 18.240988 3.475089 36 32 15
-15.483340 15.547052 4.550826 78 85 84
-18.971987 27.306978 6.856543 48 52 35
-4.306585 18.154757 3.474864 49 41 30
-16.297016 19.591211 5.255492 53 55 41
-19.678186 27.090441 6.827765 50 54 36
-19.289076 28.896971 7.038016 85 89 74
-2.840057 18.788963 3.372741 109 98 73
-16.355429 20.441648 5.392631 65 69 46
-14.772087 14.851299 4.278030 104 117 108
-18.368517 28.185095 6.798066 73 78 57
-18.597387 37.088066 8.115803 112 113 108
-16.314096 19.852592 5.231885 47 49 35
-17.880806 24.076483 6.105504 57 60 41
-15.864136 20.068903 5.203351 67 70 49
-17.720392 36.341846 7.859627 47 51 44
-16.036100 18.623789 4.976717 29 30 16
-17.288038 27.773766 6.540829 60 62 48
-19.677217 28.623095 6.920145 109 114 95
-19.886126 29.247410 7.047716 80 88 66
-4.140833 18.166723 3.377484 179 171 139
-15.796679 16.695662 4.613061 27 29 17
-16.295166 20.089668 5.211668 36 38 24
-16.272594 19.609144 5.121238 73 75 62
-19.044926 27.382614 6.619445 54 58 42
-17.635111 27.424168 6.459863 194 205 163
-17.934082 36.089916 7.750024 143 140 138
-5.844536 18.188248 3.561929 76 80 63
-3.424109 18.190531 3.249117 0 0 0
-15.901941 18.906166 4.925680 46 50 36
-18.545000 27.970367 6.605403 204 214 180
-17.805140 35.200005 7.539245 43 45 31
-16.254597 21.364658 5.372790 151 154 153
-20.799622 28.594154 6.965994 62 66 49
-18.836662 27.933380 6.578211 194 202 163
-6.116539 18.034309 3.527467 66 64 49
-4.800639 17.799099 3.347825 0 0 0
-3.849488 18.261003 3.271643 223 205 168
-3.512746 17.646074 3.147366 193 175 160
-15.996850 18.341757 4.838456 32 35 17
-16.284266 20.125895 5.100727 70 72 58
-17.580442 23.900194 5.801776 123 129 95
-16.215790 28.855600 6.338205 63 68 45
-3.476942 17.666975 3.110327 169 153 134
-15.900749 15.387184 4.341225 28 30 18
-19.702301 27.649359 6.624970 65 69 56
-17.727283 31.830002 6.964322 62 64 51
-14.775841 13.457063 3.895918 41 39 22
-16.359728 20.912924 5.153297 45 47 33
-16.618168 26.719461 6.038788 138 163 121
-17.732161 36.411530 7.545138 130 134 121
-6.090345 17.968925 3.466540 55 54 27
-4.060997 18.186802 3.235432 0 0 0
-16.167662 19.737103 4.952341 34 36 20
-18.485277 28.010197 6.456866 195 208 162
-16.517458 26.358959 5.946587 155 173 135
-16.809536 29.059687 6.395835 28 31 12
-3.951497 18.751081 3.280521 0 0 0
-3.370951 18.526735 3.185990 246 241 193
-16.398952 27.024084 5.989605 200 147 3
-3.452662 18.094242 3.112508 112 98 73
-16.555420 32.454208 6.770645 41 45 31
-4.936184 17.813583 3.234116 0 0 0
-3.991085 18.410114 3.216880 215 208 189
-16.106226 18.429901 4.678961 38 41 23
-15.413589 18.109385 4.550759 81 90 73
-16.308302 21.107611 5.139617 149 149 147
-17.288198 22.934072 5.410010 60 59 38
-19.179127 26.537895 6.246283 108 107 85
-18.950184 27.443346 6.274044 100 111 69
-18.772549 28.026188 6.381514 57 70 26
-16.857906 30.893387 6.531802 70 73 57
-5.575057 18.271152 3.365565 0 0 0
-3.712720 18.261398 3.104058 72 62 40
-15.655150 19.546644 4.760108 0 0 0
-5.112300 17.572351 3.192448 138 125 91
-4.877201 17.965580 3.180499 158 158 156
-15.827314 18.833710 4.638007 85 100 90
-11.530540 16.785135 3.809164 32 31 11
-6.395030 18.491014 3.434837 151 130 87
-5.884080 18.962925 3.433718 254 240 201
-14.782691 13.411317 3.734173 21 22 4
-18.296127 28.166449 6.223247 110 124 88
-5.537072 17.752018 3.245009 156 157 156
-2.330565 18.550177 2.941942 157 158 152
-19.462400 29.173733 6.445920 106 118 83
-16.898958 29.784348 6.244777 63 67 52
-17.220812 28.338085 6.071416 213 158 9
-6.804775 17.927469 3.377574 61 49 29
-19.850985 29.333998 6.480019 185 197 153
-16.847105 30.815411 6.327891 42 44 29
-7.006840 18.067011 3.413663 26 16 2
-17.254847 27.505493 5.938997 108 130 94
-15.017146 15.873214 4.031888 7 10 1
-4.893470 18.017469 3.113821 0 0 0
-3.393017 19.477936 3.108516 0 0 0
-16.229019 20.054924 4.776218 133 135 134
-15.649288 20.010197 4.703957 21 23 12
-16.324532 20.404900 4.740657 78 80 65
-18.281553 28.184454 6.016913 195 209 154
-8.030956 19.276295 3.572532 41 36 17
-15.684696 14.734622 3.857266 27 27 15
-18.253441 27.803152 5.887717 204 195 99
-6.630889 18.023357 3.253485 209 191 118
-17.211578 29.209799 5.926256 232 179 15
-17.452003 30.805939 6.115810 58 62 47
-18.597017 26.240665 5.643848 168 168 158
-17.274876 26.336985 5.516527 207 187 90
-20.080269 29.107605 6.186538 161 161 77
-6.471291 17.933344 3.197994 165 158 85
-4.860743 17.239401 2.914100 0 0 0
-4.605586 16.944178 2.830014 0 0 0
-3.981731 17.604702 2.863503 0 0 0
-2.356286 18.300703 2.718538 53 65 35
-2.160447 18.368650 2.737551 145 148 120
-4.077791 17.543154 2.831547 0 0 0
-6.983127 18.047596 3.217635 234 224 142
-14.608365 15.682470 3.722642 13 17 3
-7.956978 18.586914 3.361555 85 76 42
-7.196227 18.233965 3.218928 235 223 155
-3.286486 17.763355 2.716775 44 48 26
-9.014161 14.714551 2.983262 160 161 128
-18.486580 32.221714 6.191350 58 56 41
-16.956896 31.004280 5.914902 59 61 47
-14.710187 15.998452 3.731035 30 34 19
-13.208227 14.390557 3.318533 44 48 32
-7.781985 18.395237 3.225490 172 145 66
-2.301085 18.332972 2.606693 31 42 23
-7.927059 18.623110 3.203072 188 157 74
-5.022647 17.198036 2.736816 0 0 0
-14.517707 15.339815 3.484478 28 30 16
-14.909822 14.473479 3.370005 30 34 17
-13.955188 15.159206 3.349326 23 27 13
-14.002742 15.405659 3.332040 21 24 10
-2.209546 17.270098 2.295170 0 0 0
-1.992452 18.626965 2.441056 14 14 7
-6.919883 17.265196 2.739931 156 179 155
-7.745491 18.240650 2.930901 193 167 31
-2.889799 17.716879 2.348627 60 53 27
-2.650218 18.112127 2.393048 73 66 40
-6.490508 17.142035 2.661384 103 113 79
-5.535586 17.177065 2.560540 90 88 75
-2.642137 18.851826 2.365499 76 61 28
-3.966632 17.591679 2.398703 74 66 30
-6.364055 17.284821 2.538206 28 32 10
-13.937613 15.588934 3.046788 23 25 14
-3.539067 17.731079 2.230473 93 78 49
-4.800200 17.343378 2.315263 99 85 50
-5.774860 17.095352 2.355831 81 70 38
-5.573166 16.959827 2.316869 97 86 54
-9.948560 13.347382 2.270099 20 22 6
-6.145013 17.208853 2.358687 86 78 42
-5.370655 17.119331 2.291089 87 76 44
-4.124012 17.422096 2.190920 99 82 54
-5.692116 17.228199 2.315786 97 84 52
-9.851957 14.122096 2.324833 30 32 10
-7.374280 11.528728 1.839087 21 22 4
-8.838036 12.944870 2.075634 23 25 4
-4.140528 17.453917 2.111287 95 81 52
-4.608251 17.526207 2.092555 106 89 59
-6.146183 10.763682 1.584187 51 52 34
-4.087094 17.341713 2.018123 90 77 45
-7.152786 11.061841 1.717438 42 44 24
-3.524529 17.689108 1.932854 81 70 42
-5.820601 16.830240 2.045243 91 80 50
-5.581701 17.242594 2.052688 96 83 51
-5.354597 17.106352 2.039982 95 78 48
-5.360767 10.096988 1.424603 35 36 18
-6.600066 10.733828 1.447641 36 38 16
-4.726462 18.236441 1.913368 53 52 38
-3.117840 18.449413 1.764015 48 55 48
-4.214788 17.920586 1.786774 72 74 60
-2.178371 18.989265 1.694652 44 47 40
-5.984470 10.235646 1.325163 35 37 13
-4.871642 17.752115 1.742032 44 47 37
-5.283084 18.043953 1.772883 48 50 37
-6.579147 10.852688 1.331816 36 38 16
-6.368748 17.793589 1.841876 34 38 23
-6.703294 17.988394 1.866125 87 84 59
-6.461631 17.755415 1.833972 44 48 31
-1.994739 18.431765 1.566538 80 83 76
-5.778812 17.733700 1.773118 33 35 22
-6.878408 10.712363 1.273742 28 33 13
-2.283968 19.074953 1.473158 168 171 163
-1.954758 18.331221 1.400304 78 81 74
-3.981711 18.206478 1.522542 126 144 132
-4.836487 15.545189 1.375213 0 0 0
-3.980235 17.828142 1.294521 99 101 88
-5.771814 18.903198 1.502910 0 0 0
-3.835503 16.285944 1.209626 88 88 39
-5.540964 19.815754 1.468738 113 111 81
-6.846760 10.561397 1.011279 71 70 50
-6.399001 10.485800 0.926004 73 76 63
-4.178182 18.585669 1.197322 113 108 80
-2.329822 18.536371 1.073488 28 31 18
-2.889972 18.582954 1.113184 88 102 97
-2.032573 19.145281 1.054105 0 0 0
-3.675946 18.158501 1.114242 80 90 82
-8.160771 11.435659 1.019071 74 79 59
-7.152554 19.066879 1.311300 74 77 66
-2.254060 18.908188 1.046431 109 114 107
-2.452154 17.878513 0.980081 198 211 211
-3.716326 17.986986 1.053417 76 90 77
-2.361837 18.546789 0.961052 0 0 0
-3.154884 15.744811 0.809566 0 0 0
-2.690653 17.758720 0.856661 0 0 0
-7.019534 10.623174 0.770256 31 36 13
-7.147658 10.938596 0.774673 48 50 36
-2.975676 18.783699 0.714016 69 68 49
-7.824522 9.993703 0.630937 227 225 189
-5.735012 17.229250 0.797277 85 89 72
-3.863967 17.546879 0.694615 63 65 51
-2.972775 18.056879 0.652787 95 86 68
-6.791422 10.614161 0.207125 34 37 10
-7.212441 10.876075 0.174031 35 35 9
-2.726972 18.075153 0.059694 93 93 88
-2.474468 18.691427 -0.091950 73 73 69
-2.236089 18.893852 -0.098723 80 81 77
-7.200945 18.368229 -0.099004 0 0 0
-6.403600 17.966341 -0.081759 44 45 32
-5.824142 17.285660 -0.081592 24 28 22
-5.898878 17.594160 -0.079920 48 51 47
-7.506312 19.346041 -0.084938 43 46 29
-3.186758 17.674242 -0.151542 41 38 33
-2.179088 18.729771 -0.203570 69 69 69
-4.477965 14.243416 -0.142749 36 39 18
-3.797972 18.041828 -0.211272 51 56 49
-2.341510 18.315746 -0.205899 38 38 38
-3.713188 17.991596 -0.208728 60 62 57
-3.786669 17.694313 -0.236320 0 0 0
-3.004407 18.071787 -0.242289 49 49 51
-2.059030 18.869246 -0.264048 138 140 129
-2.005618 19.090975 -0.263554 61 64 54
-4.077785 17.888273 -0.308575 102 103 105
-3.663203 17.722321 -0.300307 92 97 90
-2.585394 18.770378 -0.315900 79 79 79
-2.233115 18.874327 -0.318831 59 60 55
-3.690336 18.091793 -0.308011 108 110 105
-4.597198 17.652197 -0.311208 117 121 120
-4.106344 14.075152 -0.312379 50 58 45
-2.342335 11.746335 -0.241752 0 0 0
-4.777861 17.625082 -0.449941 74 77 83
-4.346908 17.785494 -0.454764 105 111 132
-4.295398 17.919170 -0.455971 80 84 94
-4.665401 12.164094 -0.311047 128 132 133
-4.746715 12.596159 -0.318778 103 107 108
-2.644862 18.584555 -0.478173 44 43 51
-2.315453 18.843624 -0.482236 78 80 76
-1.851027 19.187492 -0.498694 65 66 59
-5.215425 17.740398 -0.552974 97 100 108
-2.535793 18.601007 -0.563914 89 92 95
-3.495380 18.184875 -0.585814 121 118 110
-2.448105 18.925003 -0.596318 51 58 72
-1.559097 19.413574 -0.616712 73 73 64
-2.413343 19.121325 -0.632866 99 104 103
-2.597462 18.804077 -0.652873 93 97 107
-2.925664 18.341442 -0.665477 98 105 109
-7.265913 10.890933 -0.464387 74 91 72
-2.801403 18.744690 -0.662437 98 98 108
-1.672924 19.792328 -0.714215 105 103 81
-1.424953 19.266796 -0.673272 107 104 87
-6.072028 8.308714 -0.401861 49 51 48
-2.658479 11.532599 -0.431487 0 0 0
-5.872157 17.279058 -0.720112 55 72 61
-2.200275 17.974739 -0.677802 68 72 85
-5.334454 17.941683 -0.760422 0 0 0
-2.173913 18.653051 -0.753501 57 59 55
-2.074837 19.015678 -0.766835 90 90 87
-2.129838 17.828810 -0.739034 67 70 82
-3.734728 18.098516 -0.842603 150 135 105
-2.302218 18.832932 -0.831401 128 135 135
-7.618888 10.087609 -0.611331 87 91 76
-3.518619 7.423457 -0.438625 108 111 95
-2.165592 17.824568 -0.903014 89 105 147
-3.609867 18.068979 -1.000558 183 179 171
-5.546679 17.506529 -1.029296 131 145 147
-5.035839 17.422462 -1.069498 107 113 113
-2.889598 6.710296 -0.466639 97 115 104
-4.845853 17.476822 -1.070427 132 142 152
-2.458135 18.666592 -1.042651 77 83 93
-2.282554 18.743286 -1.048375 172 176 184
-2.503336 20.274954 -1.121528 91 92 88
-2.513277 18.312988 -1.077868 99 106 115
-4.322163 14.976024 -0.935767 177 118 4
-1.980909 19.158947 -1.114424 111 116 126
-2.840855 18.361238 -1.161906 115 115 124
-1.437546 18.694515 -1.142296 26 36 32
-2.450718 18.604797 -1.200873 74 77 82
-3.841040 17.904245 -1.212268 167 170 172
-4.668731 17.782770 -1.257636 125 142 173
-2.536968 18.637980 -1.246990 145 148 148
-2.289496 18.767826 -1.324853 184 184 185
-3.949640 17.941732 -1.319615 125 121 119
-2.817022 18.284849 -1.334117 153 156 158
-2.750052 18.360872 -1.327309 144 146 144
-3.746178 19.268642 -1.435177 146 139 129
-2.524394 18.339602 -1.321661 63 69 65
-2.516047 18.572777 -1.348442 148 152 149
-2.777133 18.549252 -1.373712 116 117 108
-1.433243 18.685003 -1.317081 28 34 34
-3.024981 18.197418 -1.357964 158 154 132
-2.989401 18.604626 -1.424213 74 69 52
-2.802099 18.116814 -1.381562 219 220 195
-2.824711 18.318729 -1.399390 158 156 138
-2.742900 18.323353 -1.398146 135 134 116
-2.844422 6.593945 -0.658162 93 74 34
-2.294985 18.778078 -1.443959 59 60 61
-4.315423 17.522943 -1.446388 153 160 168
-2.786185 18.216019 -1.454907 156 153 144
-1.434660 18.688089 -1.411122 56 60 61
-1.947048 20.709621 -1.569380 88 94 80
-3.222008 18.306574 -1.494590 114 110 110
-2.270585 18.737839 -1.511398 176 176 178
-1.623999 19.341675 -1.547612 183 182 185
-2.618337 16.443598 -1.478262 47 50 51
-2.598384 18.236486 -1.630192 42 42 49
-3.201597 14.755095 -1.679615 54 57 64
-4.302117 17.292627 -1.934898 69 71 70
-4.243183 17.354864 -1.967933 198 214 215
-2.260081 18.650219 -2.012042 41 48 56
-2.595139 18.200575 -1.984024 20 26 32
-2.193859 20.256222 -2.192535 45 47 47
-2.160412 17.330542 -1.928233 32 37 40
-2.803038 18.793024 -2.105612 0 0 0
-2.907865 18.286985 -2.089641 0 0 0
-2.597623 18.228203 -2.052591 40 45 51
-2.179758 18.677176 -2.062533 58 62 59
-3.713279 18.235703 -2.124676 83 86 82
-2.498062 18.457451 -2.073575 51 53 50
-5.120980 17.865278 -2.180498 124 127 132
-2.723395 18.252728 -2.140605 69 73 76
-4.756118 16.929659 -2.145134 0 0 0
-2.978240 18.177046 -2.204684 108 109 106
-4.427709 17.451502 -2.248775 201 211 214
-2.910572 16.068615 -2.013964 0 0 0
-2.299514 19.020018 -2.266690 111 116 106
-3.573873 16.609079 -2.143647 130 139 152
-2.724012 18.270187 -2.237725 77 81 84
-2.031756 18.854755 -2.246701 132 135 126
-3.056038 16.002108 -2.054827 85 84 81
-3.024439 18.207218 -2.297944 104 107 101
-2.258639 18.684010 -2.293679 165 170 167
-4.413749 17.419907 -2.324811 180 190 194
-4.075185 17.644917 -2.318442 93 103 114
-2.416690 18.447401 -2.319866 59 60 59
-2.028182 18.838366 -2.339267 119 122 113
-3.105675 16.121008 -2.173671 99 98 96
-2.808144 18.789186 -2.401582 125 129 160
-3.012299 16.707756 -2.213363 154 152 152
-2.668165 18.100430 -2.338200 90 99 120
-2.487988 18.478586 -2.369787 120 121 123
-2.320795 19.134243 -2.416714 107 113 103
-2.824857 18.104855 -2.401486 54 61 139
-3.470547 20.107479 -2.705148 67 92 148
-2.891666 18.078377 -2.420486 152 152 209
-4.598856 17.407282 -2.480935 97 110 134
-4.227190 17.427153 -2.506135 204 214 213
-2.514545 18.092131 -2.439384 44 53 177
-5.055789 17.432384 -2.545374 142 181 240
-4.343222 17.158249 -2.424334 0 0 0
-2.760288 18.484442 -2.541266 80 98 219
-2.996663 18.072559 -2.543403 94 91 84
-2.857400 17.933432 -2.510250 60 70 145
-2.256563 18.619801 -2.532251 67 73 71
-4.416056 17.424030 -2.587038 207 213 217
-2.840317 18.484156 -2.624987 58 98 173
-3.119397 18.204430 -2.634557 99 96 89
-4.903199 17.084684 -2.714135 117 151 234
-2.634023 18.317926 -2.619307 44 85 204
-4.053433 17.747862 -2.682584 135 141 153
-3.242491 18.054928 -2.678642 108 105 98
-2.640848 18.319601 -2.716729 65 109 234
-3.195111 16.729530 -2.597733 107 106 98
-2.617147 18.237453 -2.771492 72 116 231
-2.641815 18.298103 -3.037868 43 45 110
-2.704283 16.904459 -2.858666 100 103 100
-3.479471 17.515602 -3.084236 73 71 64
-3.067346 22.727261 -3.929870 35 37 32
-2.711499 18.149830 -3.242898 91 93 90
-2.839856 19.354525 -3.622697 36 38 35
-3.038246 18.287027 -2.300591 40 40 38
-2.157170 19.346659 3.367110 101 92 72
-5.094648 18.001535 3.371480 103 85 44
-3.378990 17.850342 2.806985 79 90 52
-3.086449 18.521612 3.354809 56 47 32
-3.615106 17.776970 0.936449 18 22 16
-4.982594 17.208183 2.183358 97 79 39
-3.458427 18.333858 3.358668 61 52 20
-2.781756 18.156626 2.820564 167 138 88
-3.708864 17.537020 2.792076 125 129 111
-16.558201 18.958729 7.462528 29 31 20
-1.704466 18.824501 0.996487 59 61 45
-1.919070 18.713062 2.792866 60 58 49
-1.710606 19.213442 3.025816 77 79 77
-3.730276 18.397758 3.389144 22 17 4
-4.561412 14.528408 -0.050881 58 56 30
-17.783297 31.051771 9.015597 61 77 96
-15.150244 14.239235 8.562994 35 38 19
-15.794877 17.280712 8.951262 20 23 13
-15.935789 17.448004 8.770791 55 54 60
-15.285078 14.079576 7.545799 26 28 15
-15.746647 15.831879 7.644568 0 0 0
-16.605783 20.007460 8.578720 42 46 29
-16.453461 18.526749 8.070013 26 28 12
-16.570007 20.643124 8.596126 48 50 29
-16.571022 19.147791 8.066513 20 21 15
-17.208055 21.209702 8.654923 27 28 12
-17.224777 21.240183 8.515686 46 47 31
-17.387846 21.920815 8.542347 29 29 17
-17.328476 21.875957 8.376588 57 58 43
-15.516740 17.375351 6.903657 71 73 60
-16.471649 18.612013 7.001143 54 58 43
-16.445709 18.086105 6.840247 122 152 140
-16.488682 18.371834 6.841326 121 132 118
-16.530548 18.678642 6.780051 34 42 31
-16.734282 20.092913 6.972105 31 32 14
-16.744904 20.346556 6.959108 29 32 15
-18.598221 24.403763 8.072258 50 53 42
-19.919092 26.475529 8.718334 55 59 44
-14.755814 14.537966 5.375434 52 54 36
-16.812309 21.167255 6.907865 33 35 23
-16.624344 17.914968 6.200312 179 196 190
-17.382706 29.060059 8.202981 38 40 26
-17.371317 30.171167 8.353255 49 51 35
-19.745754 28.947351 8.458717 58 62 47
-17.443054 31.461565 8.530233 52 54 41
-19.675684 29.615038 8.126048 45 48 37
-17.883156 28.554916 7.613254 49 53 39
-19.497833 26.219910 7.260998 68 72 56
-17.189486 32.465626 7.977228 39 41 28
-9.317019 15.137259 3.841899 79 90 73
-17.113848 32.962944 7.726052 47 49 38
-16.465950 22.082153 5.750755 34 37 16
-21.012388 31.126881 7.567364 78 83 64
-16.956179 29.618784 6.760363 44 46 32
-16.032921 17.873461 4.842793 32 36 22
-3.519201 18.324392 3.264318 227 212 182
-15.974061 21.050455 5.202559 64 67 48
-17.645504 31.387825 6.957415 32 34 20
-14.850682 14.196138 3.928992 35 37 23
-18.840837 25.611305 6.025313 114 114 86
-17.382750 26.416901 5.700500 182 195 152
-15.242282 17.686085 4.247692 40 43 25
-17.027643 29.700294 5.907179 86 84 61
-15.692890 27.974506 5.411101 0 0 0
-15.097816 17.012579 3.743986 44 46 32
-14.902661 17.324198 3.665235 24 26 15
-2.369637 18.171568 2.369545 63 58 35
-15.461366 17.247196 3.578261 34 34 22
-15.603117 17.626490 3.568194 39 40 24
-3.230288 18.492548 1.774251 51 58 49
-5.024935 17.568363 1.697830 43 47 33
-4.384244 17.801878 1.236474 138 144 121
-2.849092 18.137623 -0.199748 61 61 61
-5.438360 18.810558 -0.329116 131 131 123
-2.687111 20.484379 -0.532958 90 92 86
-1.404593 19.105005 -0.496932 68 67 63
-5.281633 17.058512 -0.678346 115 128 128
-2.790359 18.173624 -2.168229 75 76 77
-4.163010 18.159492 -2.413594 76 76 74
-3.116572 21.368200 -3.068532 69 71 66
-5.168262 18.121763 -3.196130 61 63 116
3.700732 18.709805 0.079228 46 41 18
3.041403 18.542980 0.688609 91 72 70
-3.489671 17.830547 2.676140 44 50 33
-3.077497 18.337938 -0.496871 43 43 41
-17.183939 16.630379 9.848174 8 9 4
-16.558645 17.152514 9.402052 25 26 19
-16.948317 18.983984 9.162214 11 11 6
-16.874830 19.163736 9.108431 16 17 12
-17.117512 20.368900 9.383631 13 16 10
-16.896328 19.164845 8.964525 52 50 35
-17.007536 19.794914 9.117575 34 35 29
-15.843616 15.465915 7.513130 41 42 36
-16.857765 18.635185 8.498910 27 27 15
-15.973821 17.402721 7.490207 27 23 11
-15.747297 17.693604 7.314444 65 65 53
-17.475021 22.170290 8.712600 11 13 12
-16.963961 17.029816 7.242107 37 39 28
-17.125374 19.910219 7.932416 182 198 198
-15.917661 17.316471 6.990209 44 45 31
-16.389067 20.053343 7.052815 45 46 32
-17.224321 23.231634 7.553779 58 59 50
-16.902428 20.995626 6.968089 33 33 22
-17.912287 27.512163 8.418059 14 14 12
-16.653990 22.079323 7.098323 47 46 41
-16.607025 22.283958 7.062338 28 30 19
-18.551622 27.567905 8.419654 33 34 29
-17.408607 29.974943 8.553866 21 23 10
-17.001583 22.839369 7.083187 42 45 27
-18.531542 27.141623 8.114058 37 39 29
-16.816454 22.094421 6.833605 35 36 22
-17.389189 32.511192 8.762391 156 156 158
-18.793005 27.144209 8.104482 29 31 20
-19.553446 26.966003 8.146576 27 28 20
-19.238585 27.329929 8.288441 38 39 31
-19.332832 27.503349 8.099795 91 94 84
-17.334448 29.534409 8.147279 27 28 15
-17.897497 28.189659 7.976253 55 60 54
-17.116707 22.946217 6.855306 31 32 24
-19.362486 27.679583 7.979691 75 83 72
-18.879808 34.650169 8.890347 180 179 178
0.242471 6.124363 0.973175 196 131 3
-19.592831 27.340864 7.685139 163 181 170
-19.397144 27.215076 7.599006 92 110 102
-18.768358 27.784735 7.624649 41 46 40
-19.574173 27.020823 7.585473 90 98 85
-16.600033 22.742746 6.376564 33 36 19
-18.400486 27.921486 7.533715 26 29 22
-17.426428 26.881590 7.221388 34 37 30
-17.852118 27.002802 7.223628 80 83 76
0.292399 6.109357 0.909992 217 159 9
-18.886040 27.218239 7.150544 57 60 49
-14.849170 17.920544 5.059297 0 0 0
-16.786427 22.015669 5.998766 22 27 21
-3.777736 18.273302 3.464609 34 28 14
-3.898158 18.227369 3.467543 29 21 15
-16.980680 35.769093 8.192491 158 158 158
-18.790741 27.627357 7.136769 31 34 23
-2.189680 19.300978 3.368265 0 0 0
-2.017373 19.390524 3.335827 168 153 119
-16.840311 21.968760 5.879770 49 51 46
-4.454299 18.035957 3.466910 11 4 1
-17.059065 22.930538 5.978596 26 37 33
-4.999635 18.101612 3.489735 16 12 1
-5.038146 18.011536 3.465998 26 22 11
-14.115942 18.224861 4.782968 57 58 42
-3.711221 20.285990 3.599983 179 169 152
-15.501681 19.886839 5.258552 31 33 22
-5.277756 17.939693 3.459456 0 0 0
-16.231865 35.455345 7.685647 48 48 30
-3.782864 18.187792 3.184122 112 100 89
-3.499422 19.012959 3.267210 0 0 0
-8.563792 22.259859 4.495365 0 0 0
-4.646731 18.214016 3.321370 156 158 157
-15.880959 17.004120 4.619889 52 49 40
-15.600835 19.702082 5.000143 47 48 32
-19.698843 27.407585 6.747213 42 43 27
-3.572023 18.079948 3.120441 176 157 143
-2.681570 18.749033 3.083597 0 0 0
-2.949254 18.569372 3.085085 70 60 38
-2.782929 18.378700 3.040715 58 44 33
-15.109185 18.314827 4.791935 109 110 105
-4.352865 18.058889 3.176166 111 102 70
-15.108226 16.397173 4.330287 20 22 9
-8.048209 21.418779 4.114584 0 0 0
-3.178430 17.951136 2.884762 114 117 79
-1.993065 18.492785 2.802919 189 195 150
-4.862716 17.779936 3.076479 51 37 16
-14.802905 18.085018 4.333930 67 74 67
-15.662618 23.492809 5.195249 102 103 87
-1.989144 18.502707 2.708127 76 87 42
-2.987648 17.949591 2.683160 14 12 0
-15.212252 17.948269 4.140394 207 224 221
-3.761893 17.502005 2.680647 34 41 15
-5.441564 17.639742 2.867909 0 0 0
-4.827501 17.382502 2.739094 0 0 0
-4.395416 17.424612 2.650826 0 0 0
-3.659082 17.782124 2.593387 64 65 51
-5.037619 17.244366 2.667944 49 73 41
-15.964655 20.294479 4.278574 34 35 20
-3.673811 17.391481 2.466090 27 27 15
-15.434438 16.554764 3.752152 58 52 40
-4.106999 17.224422 2.476631 0 0 0
0.022856 5.405957 0.571348 144 107 1
-3.987170 17.612087 2.468650 81 75 50
-15.328926 18.880848 3.864234 20 21 16
-4.341872 17.570433 2.382144 73 60 28
-4.078202 17.327522 2.332309 0 0 0
-3.016360 17.608055 2.226793 91 71 40
-4.402336 17.405352 2.313993 74 65 33
-3.933100 17.231110 2.216602 120 96 75
-4.539699 18.072037 2.308302 0 0 0
-2.919084 17.963280 2.070579 96 77 47
-11.134302 14.073674 2.510653 16 17 10
-1.903173 17.862560 1.803133 52 44 21
-2.842770 18.628555 1.866686 15 16 10
-4.708564 17.624613 1.844921 36 34 22
-5.742877 20.317074 2.027533 0 0 0
-3.816079 18.423166 1.763776 47 35 9
-3.238993 17.944286 1.674206 30 31 15
0.033984 5.347308 0.372248 126 7 1
0.546165 4.837311 0.276846 126 12 5
-1.799433 18.746038 1.500073 45 50 43
-4.431596 18.391132 1.679932 62 51 29
0.350044 4.990844 0.285044 159 28 0
-4.407990 18.065382 1.614181 64 57 38
-4.206855 17.916117 1.531831 49 46 25
-4.077564 18.215635 1.536962 119 123 94
-3.936725 18.152174 1.436395 72 68 39
-3.939543 18.021135 1.414370 48 47 26
-2.284656 19.024729 1.225006 58 67 72
-3.601343 17.375383 1.185551 151 132 92
-3.781190 17.578716 1.171876 136 113 72
0.582612 5.368629 0.206299 136 7 2
-2.419927 19.153341 1.102543 24 22 10
-4.255520 18.399939 1.155408 86 76 49
-4.025573 17.532394 1.058910 32 26 12
0.411796 0.157388 0.171565 0 0 0
-2.023163 12.941792 0.516835 0 0 0
-12.031672 13.621036 0.889634 167 162 106
-15.098170 16.416746 1.065433 156 167 161
-11.511229 13.115176 0.599971 181 176 134
-12.420943 14.632755 0.508687 56 54 46
-2.668216 18.092585 0.056476 73 69 57
-2.001584 18.783035 -0.100631 96 90 81
-2.315331 18.847815 -0.097026 43 38 32
-3.204437 17.014811 -0.144722 89 83 75
-2.057201 18.605335 -0.181524 101 102 86
-3.907679 17.848419 -0.148263 45 46 41
-11.583535 14.174371 0.038814 40 39 20
-5.042608 17.579975 -0.165459 79 77 65
-3.015840 19.399164 -0.232665 47 44 37
-4.464263 17.525789 -0.184916 71 58 36
-4.643236 21.145927 -0.245103 89 86 80
-1.751004 18.629080 -0.280926 85 82 72
-3.203150 18.215820 -0.253488 24 24 16
-3.428327 18.326614 -0.290703 89 81 70
-2.113376 18.728117 -0.316151 91 89 74
-4.452196 23.781487 -0.390186 80 77 70
0.615426 5.862128 -0.149843 177 150 15
-2.599571 18.631174 -0.361224 43 43 39
0.399262 5.600372 -0.144351 228 163 16
-9.588157 12.358040 -0.230037 28 29 23
0.463526 5.587871 -0.165093 209 178 0
-2.399208 18.745220 -0.480839 25 27 24
-3.435064 18.351728 -0.525720 103 98 88
-2.697235 18.453434 -0.559885 77 78 84
-0.484643 3.188640 -0.119128 0 0 0
-2.490863 18.771833 -0.574688 47 61 62
-8.850550 11.116330 -0.292653 43 45 42
0.922163 5.797887 -0.218825 206 160 0
-4.707114 17.689247 -0.620068 145 154 152
-8.238297 10.282308 -0.298075 41 42 39
-3.794493 17.947041 -0.632233 139 130 115
-3.274991 18.182894 -0.685420 132 119 110
-3.818504 18.166475 -0.699827 127 114 100
-3.931497 17.791084 -0.683903 135 125 113
-2.385945 18.681597 -0.752351 34 39 39
-4.857867 17.391384 -0.725896 155 149 99
-4.174861 14.850493 -0.661715 0 0 0
-16.847534 46.569405 -2.078744 0 0 0
-2.726802 18.476381 -0.904617 152 223 239
-2.114594 19.176237 -0.964704 190 190 188
-3.061353 18.335592 -0.927767 138 144 152
-2.428742 18.334667 -0.937713 141 149 178
-2.073577 18.652290 -1.038477 131 134 124
-3.480800 7.272213 -0.433207 94 97 88
0.866597 6.038523 -0.338818 192 135 0
0.876952 5.959785 -0.340500 198 145 1
-2.453792 18.585289 -1.104399 60 60 58
-2.301101 20.449305 -1.287717 69 70 65
0.934058 5.694689 -0.351189 200 136 5
-2.088162 18.998568 -1.288485 83 85 73
-3.294911 7.270929 -0.525975 40 45 14
-2.260484 18.999504 -1.308416 62 62 60
0.910026 5.693738 -0.370725 172 105 0
-5.379429 8.374586 -0.678962 57 59 45
-3.335723 17.749428 -1.276092 140 128 109
-6.503195 8.993293 -0.763067 54 57 42
-4.459423 8.012306 -0.636601 35 40 7
0.893150 5.686952 -0.376815 199 129 1
-3.217379 15.933841 -1.162051 133 128 116
-3.341471 16.990776 -1.263316 132 122 105
-2.447699 12.589486 -0.942929 0 0 0
-3.389975 17.908882 -1.353381 103 91 72
-3.173300 16.093689 -1.224990 88 88 78
-1.978876 19.004126 -1.443771 47 48 42
0.903475 5.656549 -0.406091 202 134 2
-3.079599 18.124340 -1.423156 102 88 77
-3.335801 18.327795 -1.485753 134 129 127
-2.993529 17.018286 -1.390631 115 116 114
-3.469085 18.398005 -1.510110 123 119 120
-2.847560 18.527979 -1.499931 83 82 80
-2.563288 18.393263 -1.500728 122 123 119
0.956024 5.614733 -0.417071 198 129 3
-3.104899 16.112074 -1.333782 122 125 132
0.938892 5.406276 -0.410934 201 134 30
-3.141449 16.640499 -1.425215 139 143 144
-2.807656 6.563395 -0.616364 42 28 3
-2.538352 6.558003 -0.633978 37 33 4
-2.584521 13.960732 -1.275140 0 0 0
-2.874801 6.587408 -0.739956 43 38 9
-2.771446 6.613479 -0.740592 0 0 0
-2.884894 15.803785 -1.752879 65 55 56
-3.063617 16.839897 -1.910361 31 27 17
-2.772573 15.545102 -1.791806 35 32 25
-2.832188 16.974236 -1.934676 34 31 25
-2.792151 15.766912 -1.847362 59 55 42
-2.666228 15.661179 -1.841781 97 81 66
-3.400890 18.414062 -2.176734 76 70 62
-2.970952 18.086212 -2.110086 84 77 67
-2.486190 18.435898 -2.167033 65 66 61
-2.717032 18.649296 -2.249388 177 177 175
-3.113240 15.974594 -1.962316 96 91 85
-2.661680 17.612535 -2.138422 73 72 69
-2.794995 18.207973 -2.260175 56 57 52
-3.869132 18.362167 -2.333208 83 74 62
-3.514624 17.817753 -2.243116 125 121 118
-2.583975 18.214333 -2.243313 90 92 87
-3.243657 17.993906 -2.312437 111 104 96
-2.396480 18.213800 -2.259982 157 157 155
-2.903720 18.501406 -2.353540 51 52 47
1.013334 5.627159 -0.609474 194 128 21
-2.590713 18.212036 -2.317847 118 112 115
-3.999346 18.218727 -2.425935 106 97 92
-2.867769 6.540302 -0.955296 63 48 5
-1.945988 18.575022 -2.390845 173 174 168
-0.576802 5.519606 -0.713150 75 68 52
-2.581126 18.159836 -2.413412 61 68 113
-3.796355 18.184927 -2.524320 106 99 81
-3.087071 17.652378 -2.395010 124 121 113
-3.475506 17.922655 -2.436145 122 120 118
-3.864933 17.921719 -2.581495 123 121 113
-3.283981 17.259109 -2.443884 149 149 148
-3.320916 18.204550 -2.640153 96 90 77
-3.236244 17.129715 -2.541435 128 129 122
-3.121729 18.409298 -2.698840 97 93 92
-2.902743 18.049362 -2.615963 100 122 184
-2.872878 18.174997 -2.635188 114 168 251
-3.821990 17.095430 -2.573020 78 86 88
-2.236407 18.546377 -2.730583 59 60 55
-3.330043 16.696346 -2.564826 94 90 88
-3.494707 17.764648 -2.719534 108 107 101
-3.134439 17.105085 -2.598033 70 65 55
-3.551409 16.517429 -2.573299 85 93 95
-2.905450 17.826468 -2.728755 101 101 101
-2.185485 18.416439 -2.777022 86 87 82
-4.286066 18.419678 -2.991872 81 74 64
-3.716320 18.269295 -2.924582 88 84 73
-3.501417 17.093704 -2.785609 101 97 95
-3.178026 17.870737 -2.857612 75 65 53
-4.051424 17.821629 -2.959879 65 61 52
-3.929010 17.324360 -2.901816 93 97 96
-3.307723 16.242205 -2.769979 116 105 89
-3.266243 17.199802 -2.910218 84 76 65
-3.431432 18.465940 -3.146225 48 44 36
-1.470449 5.691263 -1.006221 127 100 8
-1.487654 5.746640 -1.013329 130 103 10
-1.474899 5.646037 -1.000378 110 79 2
-3.732170 18.193695 -3.172677 78 70 59
-3.472140 16.218954 -3.029379 56 57 55
-4.356802 17.883467 -3.446934 31 34 34
-1.522882 5.790072 -1.121828 42 35 15
-1.438992 5.661973 -1.102773 49 33 6
-2.815599 14.996631 -2.887115 64 64 62
-1.449260 5.587037 -1.117107 93 73 46
-1.419863 5.457242 -1.104099 96 79 51
-1.361011 5.355687 -1.090127 71 48 24
-1.641016 5.589912 -1.197693 93 69 33
-1.381067 5.532705 -1.171126 164 151 138
-1.456240 5.548421 -1.193185 69 52 8
0.699678 5.641899 -1.005579 231 166 15
-1.264422 5.172051 -1.162312 64 50 9
-0.247522 5.748810 -1.171805 84 74 54
-1.365960 5.524160 -1.268389 59 45 11
0.248033 5.703145 -1.125645 112 55 3
0.844612 6.278789 -1.390319 160 112 6
-2.676185 18.875877 3.364482 67 53 32
-4.243040 18.238678 3.393657 76 66 41
-5.301649 17.878628 3.350157 81 72 32
-4.186375 17.503584 2.851451 161 166 155
-2.789976 18.088604 2.539053 30 30 16
-2.147997 18.629103 0.894767 100 105 82
-19.960131 29.375847 7.259457 108 110 99
-17.146637 23.060102 6.715318 23 25 20
-2.783037 18.453125 -1.103805 91 90 93
-0.451849 5.639983 -0.469204 213 135 7
-2.841725 6.607167 -0.803406 71 52 27
-3.564559 17.887850 -0.208012 94 92 85
-3.929435 17.600328 2.692159 9 10 7
-2.590386 18.475393 -0.182902 65 65 65
-4.978804 17.505283 3.035585 70 64 48
-4.472898 17.628691 -0.067986 64 65 62
-2.327661 18.422152 2.770629 63 70 58
-2.431961 18.259687 2.814852 156 155 110
-16.818237 17.874563 8.918934 46 44 31
-15.313679 15.818398 7.395111 6 5 5
-15.911398 17.112755 7.482156 42 44 31
-17.242451 22.095182 8.684656 15 15 7
-17.260996 21.011410 8.316245 43 45 34
-15.995227 16.745440 6.789144 48 51 44
-15.865911 20.505993 6.766341 45 43 30
-16.537043 28.235298 7.973431 50 51 37
-16.792692 22.454250 6.478415 97 101 87
-3.363001 18.481298 3.295991 81 71 54
-2.410516 18.152067 3.023089 161 146 119
-3.112313 18.508032 3.148451 208 191 167
-17.808027 25.047190 5.636705 90 101 75
-16.011478 17.888023 4.138753 24 23 20
-2.179880 18.413841 2.431225 19 20 7
-14.311373 18.942249 3.754244 29 29 15
-7.783830 13.154046 2.444914 0 0 0
-2.820725 16.843151 1.266641 122 106 64
-1.976789 20.652960 1.284274 41 49 53
-5.358520 19.003016 1.467617 32 17 0
-2.214277 19.441887 -0.356962 79 77 61
0.622985 6.386189 -0.229730 176 125 0
-2.313547 17.092518 -1.474330 88 91 98
-3.306862 16.975599 -2.064713 83 72 56
-1.935201 6.842092 -1.138334 35 23 1
-3.056919 15.495654 -2.646318 91 86 67
-16.169544 12.234293 9.875510 142 144 143
-16.215200 12.447473 9.861606 145 149 150
-16.974812 13.394670 10.380921 176 175 170
-16.654127 12.864017 10.065650 171 173 170
-16.027996 12.649582 9.729299 159 161 160
-15.472383 11.877828 9.258170 171 172 174
-16.569418 13.124797 9.973982 153 155 154
-17.158674 13.862712 10.417591 172 173 168
-15.863861 12.072377 9.316418 172 174 171
-15.762753 12.271437 9.355456 162 168 166
-15.614118 12.816860 9.465298 159 164 160
-17.183966 14.175394 10.393208 188 187 183
-15.779217 12.161894 9.252664 154 159 155
-15.991293 13.127366 9.659539 161 163 160
-14.263245 11.239601 8.480721 181 183 178
-16.856083 14.138341 10.209732 165 165 161
-16.093185 12.695032 9.462847 154 158 157
-16.225456 13.386263 9.744111 162 164 161
-16.124506 12.451316 9.382962 167 169 168
-17.503471 15.127260 10.704237 199 199 191
-15.988052 13.360245 9.611985 153 155 154
-16.662560 14.190672 10.085694 179 180 175
-15.659590 12.695063 9.239201 157 163 163
-16.467674 13.751841 9.828941 147 152 148
-15.755730 12.268706 9.086968 175 177 174
-16.839781 14.434665 10.153300 160 160 158
-15.941089 12.085888 9.057079 120 122 121
-15.908392 13.328368 9.440209 167 171 170
-16.037756 13.630917 9.602332 151 156 152
-16.781773 14.265508 10.023445 155 157 154
-16.144653 12.947315 9.375154 156 159 158
-15.452862 12.453568 9.000299 156 158 157
-15.671489 12.942307 9.203140 165 171 171
-15.763627 12.501926 9.072047 165 167 164
-16.055300 13.761560 9.588368 158 160 157
-17.058619 15.288265 10.362797 176 177 172
-15.839575 12.277134 8.976193 133 135 134
-16.841154 15.442279 10.345947 195 194 190
-15.749954 12.865740 9.143454 182 187 183
-16.192347 13.977075 9.633592 141 145 143
-15.904976 13.316938 9.292930 155 159 158
-16.442757 14.252790 9.748378 164 166 165
-16.065195 13.157789 9.264212 175 179 178
-15.762355 12.484887 8.906112 149 151 147
-16.266104 14.268968 9.644756 154 155 157
-16.155071 13.968991 9.495817 167 176 173
-15.933522 13.302170 9.197736 158 160 159
-15.327529 12.759886 8.805571 156 158 157
-16.211863 13.744387 9.381776 158 164 162
-16.234489 14.368132 9.612932 150 153 152
-16.180784 13.543563 9.281934 177 181 180
-15.826795 12.751668 8.900630 124 126 125
-16.224405 14.475146 9.592091 134 138 139
-16.189045 13.982135 9.402363 163 169 167
-16.227005 14.254951 9.508348 162 166 167
-17.500765 15.829050 10.334496 123 125 124
-15.835073 13.261367 9.039012 176 178 177
-15.931438 13.575782 9.141055 174 178 177
-16.201765 14.600353 9.557675 147 153 151
-17.057648 16.328325 10.347669 197 196 191
-15.813219 12.985883 8.859755 141 143 142
-16.626968 14.994833 9.751584 148 151 151
-15.646263 13.559903 8.988173 141 143 142
-16.485695 15.022224 9.667504 160 165 161
-16.387321 14.346811 9.433785 169 175 174
-15.892052 13.532538 8.985190 172 174 173
-16.184353 15.286906 9.647272 122 124 122
-15.715755 12.435675 8.555461 107 109 108
-16.325232 15.038270 9.573123 142 146 142
-15.984262 13.330330 8.912869 123 125 124
-16.425682 13.725542 9.144858 142 146 145
-16.087452 14.400903 9.240760 168 172 173
-16.072824 14.642653 9.325491 170 174 175
-16.513338 15.280085 9.650728 149 153 152
-16.109982 14.167397 9.161670 174 180 176
-15.864944 12.765980 8.619963 116 120 119
-16.301533 15.261293 9.525333 155 159 160
-18.155373 17.066561 10.556449 138 140 137
-16.069983 13.627793 8.914212 127 131 130
-16.085346 13.902493 9.021239 170 174 173
-15.534919 11.602309 8.102855 142 148 147
-15.477727 13.948803 8.838985 160 162 161
-15.472528 14.482634 9.024960 151 156 159
-16.563818 15.562953 9.638442 155 157 154
-15.849907 14.496286 9.097198 171 177 177
-16.106373 13.773660 8.909829 148 154 152
-16.120955 14.241969 9.072692 163 165 164
-16.139685 14.170119 9.034548 174 176 173
-15.314158 13.936880 8.756618 183 186 185
-15.881788 15.219735 9.293491 148 152 151
-16.089643 13.884573 8.892081 137 139 138
-16.084051 14.048325 8.955270 148 150 147
-15.965335 15.053779 9.250494 168 173 173
-15.411617 13.894526 8.634258 173 175 174
-15.982965 14.813138 9.127517 159 163 164
-16.462757 15.762530 9.552928 146 148 147
-16.160931 14.174507 8.886909 139 141 139
-16.450413 15.969510 9.521991 154 158 159
-16.042572 14.802010 9.038237 178 180 179
-16.224697 15.465200 9.292870 161 167 167
-15.760428 15.866888 9.326365 126 126 126
-16.645258 13.727865 8.855983 125 131 129
-15.954819 15.042453 9.079821 171 177 177
-16.821823 14.097286 8.908647 116 121 120
-16.120632 14.385938 8.833011 138 140 139
-16.901922 16.548313 9.699694 163 165 162
-16.500797 16.669437 9.649749 124 125 122
-16.228489 15.214401 9.087186 175 180 179
-16.581835 16.446745 9.532648 142 145 144
-16.141817 13.910174 8.625612 112 116 115
-16.161604 14.915832 8.921126 173 175 172
-14.935957 11.553638 7.579371 143 152 151
-15.711023 12.527100 8.071204 145 155 156
-16.303553 14.756564 8.886852 141 143 142
-16.524776 15.916158 9.302967 168 172 173
-16.760912 16.339060 9.478463 167 172 172
-16.183113 16.399162 9.311568 151 153 152
-15.625500 12.618376 8.016934 148 152 151
-16.158638 14.794089 8.800677 149 151 150
-16.014893 15.065405 8.840185 153 156 155
-16.552477 15.158986 8.963313 123 127 126
-15.039106 11.850308 7.588131 131 137 137
-16.188326 14.181164 8.596478 106 112 108
-16.313826 15.759050 9.062750 170 174 173
-14.874263 11.542840 7.445372 164 170 168
-15.484743 12.212946 7.754109 153 159 157
-16.671959 17.127121 9.503424 152 156 155
-16.444761 14.595243 8.653864 122 128 126
-16.305735 15.236751 8.829250 136 140 139
-16.869659 17.553419 9.653070 172 172 171
-15.942513 15.995705 8.953614 171 177 177
-14.981104 11.582360 7.390320 171 176 172
-15.222664 11.965105 7.556109 159 165 162
-15.090333 12.106514 7.579854 132 139 137
-16.388216 17.043459 9.354192 144 148 147
-16.837311 15.718828 9.033696 148 152 151
-15.759475 15.468448 8.710771 166 168 167
-15.973206 15.512385 8.755643 164 166 165
-15.390709 12.386985 7.681773 133 142 139
-6.751005 9.006600 4.699901 173 179 177
-17.090979 17.712769 9.657452 154 156 155
-16.538357 15.635924 8.896178 115 121 119
-16.151649 14.651371 8.501116 125 129 128
-16.646608 15.213712 8.734160 106 112 108
-16.634659 17.479345 9.435234 151 155 154
-15.177458 11.929494 7.437530 168 172 170
-15.216748 12.195356 7.514918 149 155 153
-14.841671 12.208711 7.444412 130 136 135
-15.035741 11.603279 7.285439 161 163 158
-15.650288 12.771270 7.756479 163 169 167
-16.679199 15.989758 8.934531 138 140 139
-16.254770 15.957664 8.839999 173 175 174
-16.311533 16.742685 9.065977 161 165 166
-15.147814 12.038687 7.402911 165 169 168
-16.263346 15.211196 8.616262 117 121 120
-16.363401 15.521092 8.655981 116 122 120
-15.523621 13.387882 7.862477 150 156 156
-16.002623 17.761734 9.251053 136 135 133
-15.045774 11.868600 7.300884 162 167 163
-15.090302 12.123500 7.374418 172 177 173
-15.329676 12.508166 7.535650 166 172 172
-15.570937 12.870225 7.716406 130 136 134
-17.126751 18.253033 9.621265 156 157 159
-16.410709 15.945214 8.786550 133 137 136
-16.685972 16.898659 9.110939 178 182 181
-16.535259 17.412457 9.231303 159 163 164
-16.099230 13.872113 8.080663 143 152 151
-16.430578 16.057751 8.788945 137 139 138
-14.969524 11.552257 7.145223 125 127 122
-17.212034 17.398302 9.361355 179 183 182
-17.100294 18.106279 9.450095 164 168 169
-15.576543 13.123077 7.693900 144 150 150
-16.390394 16.540186 8.853769 168 170 169
-17.350531 18.694239 9.699665 148 150 149
-15.431531 12.557273 7.475028 174 178 177
-15.347406 12.747970 7.502156 155 159 158
-16.391357 16.283581 8.738014 126 130 129
-16.561010 18.171532 9.320423 164 166 164
-16.123890 16.830135 8.819989 167 170 169
-15.225608 11.929740 7.204779 109 111 108
-16.676216 18.384424 9.360479 154 156 155
-16.520649 16.513884 8.775185 143 147 146
-16.437571 16.825327 8.838532 171 173 172
-15.209859 12.553974 7.365731 154 159 153
-16.547001 18.401665 9.296787 155 157 156
-15.471461 13.302858 7.615271 136 142 142
-16.921263 16.148420 8.711009 111 115 114
-15.403584 12.541278 7.358669 150 152 150
-15.301599 12.968341 7.450675 162 168 165
-14.556547 11.965817 6.991908 146 148 143
-15.971068 13.706246 7.793746 150 156 156
-15.337748 12.235639 7.224320 122 124 123
-14.985387 12.540884 7.248295 176 178 177
-16.660835 17.245842 8.906015 176 178 177
-15.547282 13.565978 7.608076 147 156 155
-16.397802 16.774710 8.691632 150 152 151
-15.382684 13.254837 7.461970 157 163 161
-16.228848 17.409473 8.811454 162 166 165
-15.414943 13.019987 7.396374 182 184 181
-16.510849 18.128580 9.021311 169 173 174
-15.889859 13.892004 7.731383 133 139 137
-16.132074 14.715858 7.992404 149 156 157
-16.505106 17.497469 8.866027 149 151 150
-15.431692 12.529876 7.226262 118 120 117
-15.152678 13.024801 7.279506 154 158 157
-16.097826 14.832422 7.972214 135 146 148
-16.610237 16.935143 8.670739 125 129 128
-16.745712 18.064585 9.019593 177 182 178
-17.378979 19.738861 9.603658 155 159 158
-15.465336 13.541774 7.461547 162 168 168
-15.304222 12.957741 7.258836 161 166 162
-16.604435 17.426683 8.718522 151 155 154
-15.229900 11.694265 6.825202 120 126 124
-15.173871 12.615748 7.100401 113 115 112
-17.048550 16.511518 8.557580 142 151 150
-16.918678 16.912777 8.639678 109 114 112
-16.516474 18.121367 8.883698 170 176 174
-15.710147 13.937359 7.535035 158 162 161
-15.552120 14.067589 7.550422 134 143 142
-15.401988 13.495243 7.331821 174 177 176
-16.130053 14.544036 7.766873 156 162 162
-16.365599 17.658236 8.657756 165 167 166
-14.767658 11.909034 6.725063 116 118 115
-15.467673 13.034597 7.176935 121 123 120
-15.532380 13.326846 7.257699 168 170 169
-16.642620 16.952950 8.467120 123 129 127
-14.701570 13.221455 7.039822 149 153 152
-15.431686 14.216727 7.472595 112 118 118
-16.718977 18.279572 8.842423 173 175 174
-15.686633 14.173963 7.485978 166 172 172
-15.568434 13.212666 7.196211 133 135 134
-15.338846 13.448442 7.202638 161 163 162
-16.217489 15.520356 7.944046 150 158 161
-16.631603 17.188606 8.459906 106 110 109
-15.296743 13.335761 7.149330 160 164 163
-15.628472 13.369621 7.204891 107 109 106
-15.383141 14.424298 7.428166 142 153 149
-15.640494 14.379412 7.450362 164 170 168
-15.697974 14.165534 7.390600 175 179 178
-16.297632 15.830290 7.944803 144 156 156
-15.345637 13.690579 7.189919 170 172 170
-16.226368 18.390306 8.562636 179 181 180
-15.510206 12.365171 6.840217 139 143 142
-16.408833 17.269140 8.321039 132 136 137
-15.597162 13.597659 7.163475 126 128 125
-15.513757 14.745414 7.449254 154 160 160
-16.273148 15.937118 7.928648 148 157 158
-17.732256 21.346996 9.643033 158 159 161
-16.829041 16.590914 8.201692 153 159 159
-16.483315 18.318609 8.563374 140 143 142
-16.903105 17.896194 8.500398 105 109 108
-16.627083 19.711199 8.914101 163 167 168
-15.475389 14.517226 7.339585 167 173 171
-15.460273 14.008456 7.185526 144 146 143
-16.360456 15.504447 7.753968 134 140 140
-15.289652 13.810456 7.090920 142 144 141
-16.462440 18.440035 8.532096 130 132 131
-15.845392 12.665553 6.881925 147 153 151
-15.640053 13.862828 7.155138 115 117 114
-16.342791 15.589775 7.737498 130 136 136
-15.956413 13.316979 7.096972 117 123 121
-16.327494 15.979933 7.805180 154 160 158
-15.539714 14.553983 7.273944 176 182 180
-16.958897 18.331436 8.498553 104 109 105
-16.558655 19.152111 8.637949 179 183 182
-15.652949 13.383550 6.935717 105 109 108
-16.115698 15.154563 7.455126 161 165 164
-15.375460 14.935762 7.244289 170 176 174
-15.620728 14.609968 7.196918 168 172 171
-15.736060 14.296209 7.132948 127 131 130
-15.530677 14.463747 7.126930 168 173 169
-15.155603 15.220408 7.228329 129 135 135
-15.676217 15.380674 7.341835 167 171 172
-15.851413 16.453260 7.662571 152 158 158
-15.747778 15.178603 7.285328 179 184 180
-15.058355 11.905677 6.334507 145 154 152
-16.510469 17.090187 7.898862 149 155 153
-16.504293 18.585732 8.252446 121 125 124
-15.599699 12.362874 6.505540 145 149 149
-15.724436 15.654655 7.331226 169 175 173
-16.840433 20.628860 8.782666 183 185 184
-14.757967 10.724630 5.927047 156 162 158
-17.301823 19.493883 8.553470 121 123 122
-15.778952 14.812455 7.102238 130 132 129
-15.338650 14.904976 7.023656 144 147 146
-15.972983 16.297911 7.493107 160 166 166
-15.210982 12.306322 6.347863 145 153 155
-14.796840 10.630466 5.853734 159 163 162
-15.705495 12.181077 6.384813 155 161 160
-15.770791 15.925810 7.315498 148 154 152
